x,y,z,r,g,b
95,69,0.5397928,189,208,164
96,69,0.5339127,155,177,135
97,69,0.5222693,81,108,63
98,69,0.5135025,84,113,65
99,69,0.5125146,107,141,92
100,69,0.5194976,153,191,139
101,69,0.5219033,133,176,121
102,69,0.52117646,74,124,64
103,69,0.52577555,97,152,90
104,69,0.5283649,54,113,50
105,69,0.5217901,63,120,57
106,69,0.5136551,71,129,70
107,69,0.51012707,109,161,109
108,69,0.50399035,120,170,120
109,69,0.49266976,76,125,76
110,69,0.48435184,56,105,57
111,69,0.4757402,105,148,99
112,69,0.4673571,139,180,128
113,69,0.45393136,156,197,141
114,69,0.43532968,105,152,92
115,69,0.42103848,119,171,110
116,69,0.41327474,133,188,123
117,69,0.40683466,100,160,93
118,69,0.40039814,105,167,97
119,69,0.3926016,99,161,92
120,69,0.37765726,74,132,64
121,69,0.36100298,96,143,84
122,69,0.35337365,149,186,131
123,69,0.34648854,182,206,157
124,69,0.3275569,175,188,143
125,69,0.26054785,175,178,142
53,70,0.24974641,71,95,85
54,70,0.30935085,80,120,101
55,70,0.32442516,64,111,86
56,70,0.33808893,45,103,70
57,70,0.35380778,66,129,89
58,70,0.3729983,58,127,80
59,70,0.39418107,45,117,70
60,70,0.4104521,69,140,95
61,70,0.4203846,66,141,98
62,70,0.42892238,47,123,84
63,70,0.43738878,33,117,78
64,70,0.44598183,18,105,66
65,70,0.4527986,80,162,125
66,70,0.4649169,60,142,105
67,70,0.48629805,79,160,119
68,70,0.5097669,26,111,69
69,70,0.5253809,57,139,97
70,70,0.5350208,43,123,80
71,70,0.5381896,86,161,119
72,70,0.53570443,49,127,82
73,70,0.5361106,68,142,97
74,70,0.5413079,81,152,108
75,70,0.54524493,67,138,91
76,70,0.55016553,77,147,100
77,70,0.55777234,134,199,154
78,70,0.5572082,86,154,108
79,70,0.55762076,67,138,93
80,70,0.5616175,19,94,54
81,70,0.5606767,63,137,97
82,70,0.5536571,125,193,151
83,70,0.5468951,77,149,97
84,70,0.55027145,103,175,119
85,70,0.55676305,113,188,130
86,70,0.5586953,24,109,45
87,70,0.55961466,98,179,121
88,70,0.5627797,52,138,81
89,70,0.57214075,43,128,75
90,70,0.5787203,92,168,120
91,70,0.5712142,76,142,96
92,70,0.56175184,71,125,79
93,70,0.55301356,63,107,58
94,70,0.54887915,99,132,85
95,70,0.55202246,179,204,160
96,70,0.5444699,162,182,140
97,70,0.5320777,111,132,88
98,70,0.5251093,109,136,88
99,70,0.5297348,128,157,110
100,70,0.54039073,121,157,103
101,70,0.5470591,121,161,108
102,70,0.5465878,88,136,78
103,70,0.54691267,71,121,63
104,70,0.54553914,92,146,87
105,70,0.53640026,72,128,67
106,70,0.5271406,65,120,63
107,70,0.5221375,102,153,101
108,70,0.5128983,87,139,87
109,70,0.49971586,89,138,89
110,70,0.48856232,70,117,71
111,70,0.47931218,91,136,86
112,70,0.47177604,92,136,79
113,70,0.46025518,95,140,80
114,70,0.44597423,82,132,70
115,70,0.433844,72,127,63
116,70,0.42540404,105,160,94
117,70,0.41787905,34,100,28
118,70,0.41024238,81,144,76
119,70,0.40354246,132,190,124
120,70,0.38827887,45,106,37
121,70,0.369176,53,107,41
122,70,0.35339403,141,181,127
123,70,0.34117416,170,199,150
124,70,0.32717636,161,178,139
125,70,0.2932237,175,182,146
126,70,0.19501722,73,75,53
52,71,0.19699806,40,51,44
53,71,0.29101464,72,103,88
54,71,0.32353285,70,115,94
55,71,0.33500496,60,113,87
56,71,0.34544465,51,109,74
57,71,0.3571797,59,123,84
58,71,0.375525,51,119,75
59,71,0.39996985,55,128,82
60,71,0.42308235,41,119,75
61,71,0.4369262,73,152,113
62,71,0.44317004,69,152,116
63,71,0.44566625,58,146,111
64,71,0.45120132,48,137,100
65,71,0.45964068,80,166,132
66,71,0.47088048,60,148,111
67,71,0.4907917,63,147,111
68,71,0.5138748,57,142,107
69,71,0.5311238,36,123,84
70,71,0.5431823,71,154,114
71,71,0.54910177,11,100,56
72,71,0.54659265,49,131,88
73,71,0.5483751,59,139,96
74,71,0.5550782,81,156,114
75,71,0.55873096,57,133,90
76,71,0.5638966,93,161,119
77,71,0.5707411,125,193,151
78,71,0.56735444,85,155,111
79,71,0.5641815,80,151,109
80,71,0.5670771,85,151,118
81,71,0.5678614,155,218,187
82,71,0.5570272,79,144,105
83,71,0.54912376,67,134,87
84,71,0.551414,86,153,100
85,71,0.5573209,50,122,64
86,71,0.5609314,76,153,93
87,71,0.5654983,73,151,93
88,71,0.57231754,47,128,73
89,71,0.58487016,59,140,89
90,71,0.59561694,127,196,151
91,71,0.5889523,71,138,91
92,71,0.580551,42,98,51
93,71,0.571909,77,121,74
94,71,0.5650725,117,152,105
95,71,0.55966264,139,163,121
96,71,0.55213547,140,158,117
97,71,0.5461522,177,193,154
98,71,0.5410625,100,124,79
99,71,0.5480891,95,124,76
100,71,0.5618363,74,108,56
101,71,0.57266396,49,91,32
102,71,0.5742521,63,109,50
103,71,0.5702893,53,102,43
104,71,0.56371015,32,90,25
105,71,0.5517115,32,88,29
106,71,0.5376788,59,113,58
107,71,0.530546,95,146,95
108,71,0.5222218,28,80,28
109,71,0.50678617,66,113,65
110,71,0.49403182,72,119,73
111,71,0.48852688,77,121,74
112,71,0.48460478,26,74,11
113,71,0.47365445,44,92,28
114,71,0.46180052,139,186,128
115,71,0.4481531,124,173,113
116,71,0.43759814,153,206,144
117,71,0.42599463,74,133,65
118,71,0.4197547,111,170,103
119,71,0.4140449,122,180,115
120,71,0.39820117,70,127,60
121,71,0.37901926,17,72,3
122,71,0.35624316,130,170,116
123,71,0.33467755,99,133,82
124,71,0.32032523,112,135,92
125,71,0.30307123,117,133,95
126,71,0.23082843,111,119,92
52,72,0.23608644,53,72,60
53,72,0.31861442,87,127,108
54,72,0.33988854,55,102,81
55,72,0.34984952,45,102,75
56,72,0.35845873,37,97,64
57,72,0.36538023,52,118,77
58,72,0.3799266,64,131,87
59,72,0.40633127,63,137,94
60,72,0.435859,80,159,120
61,72,0.45531923,58,143,108
62,72,0.4623795,74,164,131
63,72,0.46145123,59,156,122
64,72,0.4624919,24,125,90
65,72,0.46995285,25,124,90
66,72,0.48075598,72,166,131
67,72,0.498315,52,144,110
68,72,0.5213935,23,120,82
69,72,0.5405106,38,132,95
70,72,0.55362886,3,99,59
71,72,0.55871177,7,100,63
72,72,0.5567524,59,143,106
73,72,0.5602474,54,137,98
74,72,0.56767803,36,119,77
75,72,0.5708653,57,136,95
76,72,0.57502353,58,136,94
77,72,0.57914037,53,131,89
78,72,0.5762811,82,158,115
79,72,0.57160187,78,152,113
80,72,0.5709271,101,167,139
81,72,0.570193,102,162,137
82,72,0.56063896,58,120,86
83,72,0.5558203,65,128,86
84,72,0.55961937,75,137,86
85,72,0.5664375,52,118,64
86,72,0.57004106,51,121,63
87,72,0.576538,45,120,63
88,72,0.58493364,48,125,70
89,72,0.5964758,38,116,67
90,72,0.6040886,24,99,51
91,72,0.5996593,80,142,98
92,72,0.59335,73,125,80
93,72,0.5864582,81,123,79
94,72,0.578867,109,140,95
95,72,0.56618375,107,133,89
96,72,0.55552316,107,124,84
97,72,0.5521253,116,132,91
98,72,0.55539286,99,120,76
99,72,0.5697832,57,86,34
100,72,0.5855711,63,94,43
101,72,0.596889,68,106,53
102,72,0.5997034,47,92,32
103,72,0.59129936,64,112,53
104,72,0.5783632,73,123,68
105,72,0.56378686,29,82,23
106,72,0.5461878,69,118,66
107,72,0.5354742,65,114,63
108,72,0.5288421,30,80,29
109,72,0.5140946,47,95,48
110,72,0.5012035,65,109,66
111,72,0.49730027,107,148,102
112,72,0.49153084,109,151,99
113,72,0.47810012,76,122,63
114,72,0.46726406,41,92,28
115,72,0.45388487,93,142,81
116,72,0.44229987,102,155,93
117,72,0.43215936,63,119,53
118,72,0.42808786,68,124,58
119,72,0.4226388,48,106,38
120,72,0.40649253,111,162,102
121,72,0.38538072,88,137,76
122,72,0.3631693,41,87,26
123,72,0.3413151,55,92,40
124,72,0.32686082,47,77,29
125,72,0.31522793,139,160,121
126,72,0.26125953,168,182,151
52,73,0.2600786,65,91,78
53,73,0.33041826,81,125,108
54,73,0.3515449,69,119,96
55,73,0.36222193,68,125,97
56,73,0.37143523,101,160,129
57,73,0.3782877,33,100,63
58,73,0.3897784,73,139,98
59,73,0.41523755,76,148,109
60,73,0.44537163,51,137,99
61,73,0.46926594,106,194,160
62,73,0.4800089,107,203,172
63,73,0.4794842,0,90,55
64,73,0.47512165,41,144,114
65,73,0.48124248,98,196,166
66,73,0.4934706,113,210,177
67,73,0.50674736,87,181,151
68,73,0.5271416,43,142,111
69,73,0.5484185,25,127,91
70,73,0.5612425,72,164,133
71,73,0.5667076,37,133,96
72,73,0.5685784,55,146,112
73,73,0.571809,69,155,120
74,73,0.5763466,74,159,122
75,73,0.5793316,60,146,109
76,73,0.58413565,42,125,87
77,73,0.5881622,44,128,89
78,73,0.58775616,65,147,105
79,73,0.58438843,74,151,116
80,73,0.5831644,74,140,113
81,73,0.5835423,0,65,36
82,73,0.5771675,59,121,90
83,73,0.57628894,88,146,109
84,73,0.58110183,91,152,103
85,73,0.58692116,19,86,29
86,73,0.5885523,70,137,79
87,73,0.59538656,98,164,111
88,73,0.6021859,54,128,73
89,73,0.6083681,25,101,51
90,73,0.6091977,76,142,97
91,73,0.60736924,84,143,100
92,73,0.60431796,32,84,41
93,73,0.59877497,78,117,74
94,73,0.5923814,42,74,28
95,73,0.5773698,111,134,91
96,73,0.5660518,118,136,95
97,73,0.56368375,63,78,36
98,73,0.57156795,63,81,38
99,73,0.58874243,100,127,81
100,73,0.60610145,85,116,67
101,73,0.6172168,66,101,50
102,73,0.6186691,74,118,60
103,73,0.6084408,58,108,49
104,73,0.5911804,58,108,52
105,73,0.57344717,77,128,72
106,73,0.55581546,82,132,80
107,73,0.54164416,73,120,70
108,73,0.5330122,8,63,10
109,73,0.51993436,87,131,86
110,73,0.5077961,48,91,48
111,73,0.50228864,43,87,41
112,73,0.49445158,103,143,95
113,73,0.48021123,76,120,64
114,73,0.47058022,66,112,53
115,73,0.46204436,86,135,74
116,73,0.45102423,56,108,45
117,73,0.44085702,63,117,52
118,73,0.43545318,110,161,101
119,73,0.42705452,63,117,53
120,73,0.41227144,86,136,75
121,73,0.39195517,120,166,111
122,73,0.36916602,95,139,86
123,73,0.35049343,57,96,45
124,73,0.33852828,47,80,31
125,73,0.33026,141,169,130
126,73,0.3022754,194,214,179
127,73,0.19947983,65,71,50
51,74,0.199702,37,47,40
52,74,0.29767543,75,110,92
53,74,0.33848172,68,117,97
54,74,0.35732412,72,129,105
55,74,0.3667158,77,137,111
56,74,0.37434667,72,133,101
57,74,0.3863248,0,68,28
58,74,0.40011793,58,129,89
59,74,0.4231544,93,166,132
60,74,0.4480524,52,139,105
61,74,0.4679147,84,178,148
62,74,0.47875154,66,174,143
63,74,0.4824187,0,116,86
64,74,0.48245403,24,139,108
65,74,0.4892521,41,150,121
66,74,0.5017403,105,208,179
67,74,0.5133736,42,150,120
68,74,0.5324641,34,143,114
69,74,0.5555392,97,197,167
70,74,0.5710599,99,198,168
71,74,0.57924545,64,160,130
72,74,0.58528763,47,146,114
73,74,0.588618,57,155,120
74,74,0.5895499,76,170,135
75,74,0.5891137,77,169,134
76,74,0.592489,69,159,123
77,74,0.59806055,60,151,116
78,74,0.6026851,50,139,102
79,74,0.60398364,49,134,100
80,74,0.60340077,41,115,91
81,74,0.60310847,58,124,103
82,74,0.6014441,63,124,95
83,74,0.6028612,17,85,45
84,74,0.603255,59,121,76
85,74,0.6048115,81,142,90
86,74,0.6067923,60,127,70
87,74,0.61382467,93,159,105
88,74,0.61874473,30,101,47
89,74,0.6185659,36,106,57
90,74,0.6133923,65,129,84
91,74,0.6116125,98,155,114
92,74,0.6097292,43,91,50
93,74,0.6062152,74,110,70
94,74,0.601732,30,60,17
95,74,0.5893002,74,97,55
96,74,0.58250326,118,135,97
97,74,0.58176774,54,73,29
98,74,0.58898616,51,75,29
99,74,0.60592973,56,87,38
100,74,0.6257406,43,78,24
101,74,0.6365073,53,92,38
102,74,0.63434845,65,109,54
103,74,0.62197083,71,119,65
104,74,0.6024135,60,110,54
105,74,0.58176583,63,113,56
106,74,0.56292015,87,134,84
107,74,0.54556644,73,120,70
108,74,0.53235614,65,109,64
109,74,0.5223949,73,115,71
110,74,0.51480764,30,75,30
111,74,0.50898063,18,60,16
112,74,0.50039613,25,69,16
113,74,0.4883481,73,114,64
114,74,0.48000923,64,105,53
115,74,0.47386503,49,94,38
116,74,0.46262315,37,86,24
117,74,0.44884142,43,94,30
118,74,0.43883342,86,134,76
119,74,0.4287806,88,136,78
120,74,0.41405067,40,90,29
121,74,0.3920874,92,138,80
122,74,0.37185824,94,138,85
123,74,0.35908258,52,91,40
124,74,0.3485724,22,60,7
125,74,0.33595324,50,84,38
126,74,0.31634462,137,163,125
127,74,0.23404159,108,119,92
51,75,0.23407009,65,79,70
52,75,0.31708983,89,129,112
53,75,0.34271216,65,114,94
54,75,0.35857892,70,129,107
55,75,0.3671967,72,134,107
56,75,0.3741795,63,127,93
57,75,0.38832235,58,123,90
58,75,0.4037481,29,100,66
59,75,0.42352065,55,134,98
60,75,0.44367188,76,164,134
61,75,0.45902658,66,166,140
62,75,0.46995723,3,129,103
63,75,0.47692794,31,155,132
64,75,0.48576704,4,130,105
65,75,0.4981452,24,142,115
66,75,0.5122336,85,195,169
67,75,0.5226951,37,151,127
68,75,0.5400785,30,146,117
69,75,0.5625448,107,211,184
70,75,0.57867956,97,201,173
71,75,0.591204,45,154,125
72,75,0.60095465,47,154,124
73,75,0.6060799,40,144,115
74,75,0.6040391,30,136,103
75,75,0.60034907,68,168,136
76,75,0.6046671,98,193,162
77,75,0.61147094,82,180,144
78,75,0.6166885,59,157,122
79,75,0.6209846,41,135,105
80,75,0.6230147,67,144,124
81,75,0.6241075,38,112,91
82,75,0.622383,38,110,79
83,75,0.6212303,53,120,81
84,75,0.6215448,56,123,76
85,75,0.6213188,87,152,100
86,75,0.6226912,65,132,76
87,75,0.6271245,45,115,58
88,75,0.62783515,52,121,68
89,75,0.62394524,75,141,95
90,75,0.6167491,55,120,75
91,75,0.6130566,77,131,92
92,75,0.6121819,36,85,44
93,75,0.60981816,49,85,43
94,75,0.60607713,47,76,33
95,75,0.5998084,52,76,32
96,75,0.5991916,37,57,13
97,75,0.60180765,29,54,7
98,75,0.6080138,49,76,29
99,75,0.6232921,42,74,25
100,75,0.64145476,116,151,103
101,75,0.6509178,132,168,118
102,75,0.64727134,29,76,18
103,75,0.63457835,54,103,48
104,75,0.6133431,74,124,69
105,75,0.5887796,40,91,36
106,75,0.5668204,53,101,50
107,75,0.5499862,38,85,34
108,75,0.5369182,60,103,58
109,75,0.52816343,37,78,34
110,75,0.52186,38,79,40
111,75,0.5152312,68,103,64
112,75,0.5080075,50,88,43
113,75,0.50017506,84,120,73
114,75,0.49153647,49,87,37
115,75,0.48196325,40,82,29
116,75,0.46706223,71,115,60
117,75,0.45044315,58,105,50
118,75,0.43862346,36,85,23
119,75,0.42772073,25,75,11
120,75,0.41166112,110,154,98
121,75,0.39062393,92,136,79
122,75,0.37428123,66,107,53
123,75,0.36391303,49,91,38
124,75,0.35229367,73,110,63
125,75,0.33722538,40,75,29
126,75,0.31582728,110,141,98
127,75,0.2404106,131,147,114
51,76,0.23904654,90,111,99
52,76,0.31934562,108,149,136
53,76,0.34090513,70,124,107
54,76,0.35650605,66,127,103
55,76,0.36853623,60,124,98
56,76,0.3804398,88,148,120
57,76,0.39558998,153,214,184
58,76,0.40409848,78,144,114
59,76,0.4194517,37,119,87
60,76,0.43752834,44,138,110
61,76,0.45224693,55,161,140
62,76,0.4666586,44,167,144
63,76,0.47633806,37,164,143
64,76,0.48922968,23,149,128
65,76,0.50668097,21,146,122
66,76,0.5241961,138,252,229
67,76,0.5317334,80,195,173
68,76,0.5467434,49,168,142
69,76,0.56924266,140,250,227
70,76,0.5838736,72,186,159
71,76,0.59753716,92,202,176
72,76,0.6099244,73,182,155
73,76,0.6168319,95,203,177
74,76,0.61288047,59,170,140
75,76,0.6093909,63,171,140
76,76,0.6142943,58,166,137
77,76,0.6226538,29,140,110
78,76,0.62739986,49,158,125
79,76,0.63316566,50,151,123
80,76,0.638671,44,135,112
81,76,0.63867337,33,119,96
82,76,0.63445014,60,140,109
83,76,0.6343568,65,140,100
84,76,0.63957435,113,181,137
85,76,0.63706845,80,152,98
86,76,0.63664216,85,157,100
87,76,0.6380707,8,89,28
88,76,0.6338901,28,103,48
89,76,0.6269068,54,125,77
90,76,0.6220477,76,140,96
91,76,0.61857855,51,110,70
92,76,0.6171379,42,90,50
93,76,0.61386114,57,94,56
94,76,0.6100156,59,89,50
95,76,0.607725,72,93,55
96,76,0.61225104,59,84,41
97,76,0.61970323,84,110,68
98,76,0.62623924,52,82,34
99,76,0.6371971,26,63,10
100,76,0.6474374,95,133,84
101,76,0.6519264,88,129,78
102,76,0.6502031,45,92,36
103,76,0.6439475,131,177,124
104,76,0.6230057,26,79,23
105,76,0.5954567,55,106,52
106,76,0.57432395,53,101,50
107,76,0.55956817,51,96,48
108,76,0.54836655,30,75,28
109,76,0.53795874,57,97,55
110,76,0.5299883,37,75,36
111,76,0.5231529,49,84,47
112,76,0.5170169,23,60,17
113,76,0.5102016,26,65,18
114,76,0.49987516,37,74,26
115,76,0.48525235,52,90,41
116,76,0.46661854,59,97,49
117,76,0.44816625,78,119,69
118,76,0.43398535,82,123,71
119,76,0.42183948,33,80,23
120,76,0.40671602,92,136,79
121,76,0.39149806,114,153,99
122,76,0.3783375,99,140,88
123,76,0.36580494,57,99,48
124,76,0.35177103,72,110,59
125,76,0.3355336,23,63,8
126,76,0.31233117,100,136,89
127,76,0.2399367,146,164,128
51,77,0.23808789,96,119,110
52,77,0.3142087,106,149,137
53,77,0.3353043,70,128,111
54,77,0.35397926,53,117,96
55,77,0.37082335,52,120,92
56,77,0.38585144,60,127,97
57,77,0.4002232,113,174,147
58,77,0.4062195,91,156,129
59,77,0.41694838,75,152,124
60,77,0.43624324,23,123,97
61,77,0.45694444,54,164,142
62,77,0.47892162,113,233,215
63,77,0.48937285,31,166,146
64,77,0.5002149,11,143,123
65,77,0.5122678,43,168,147
66,77,0.52600557,43,168,147
67,77,0.5366508,71,193,171
68,77,0.5533746,98,215,194
69,77,0.5739893,117,234,210
70,77,0.58988637,112,228,204
71,77,0.6047402,53,174,149
72,77,0.61926043,99,214,190
73,77,0.62519664,114,227,200
74,77,0.6224681,59,176,149
75,77,0.62102383,44,161,133
76,77,0.623855,71,182,154
77,77,0.63061386,75,188,157
78,77,0.63784873,73,186,155
79,77,0.6485904,47,158,128
80,77,0.6556113,143,235,215
81,77,0.6499943,93,181,159
82,77,0.6444765,33,123,91
83,77,0.6478899,73,157,118
84,77,0.6559517,136,213,168
85,77,0.6505495,56,136,81
86,77,0.6461306,42,122,66
87,77,0.6438594,65,142,85
88,77,0.64066374,29,111,55
89,77,0.63558227,54,131,81
90,77,0.6335361,34,108,59
91,77,0.6313632,31,95,52
92,77,0.6276554,65,112,73
93,77,0.62362117,52,92,53
94,77,0.6196826,88,117,79
95,77,0.6188281,70,95,55
96,77,0.6274798,42,70,24
97,77,0.63734543,105,133,91
98,77,0.642154,71,103,56
99,77,0.6475048,57,94,45
100,77,0.6522768,50,92,40
101,77,0.6536017,26,73,18
102,77,0.65025026,63,111,55
103,77,0.6453413,70,120,65
104,77,0.62946737,28,80,24
105,77,0.60660714,66,115,63
106,77,0.59051514,88,135,87
107,77,0.57628286,68,112,65
108,77,0.5631065,58,98,56
109,77,0.5508814,59,96,55
110,77,0.5402067,50,85,48
111,77,0.5310541,19,56,17
112,77,0.5222679,44,77,40
113,77,0.5146295,64,95,55
114,77,0.503833,63,94,52
115,77,0.48748845,36,73,25
116,77,0.46637625,34,72,24
117,77,0.44503033,65,101,53
118,77,0.4282933,65,102,52
119,77,0.4171147,22,67,7
120,77,0.40342796,57,96,43
121,77,0.39057562,64,105,48
122,77,0.37961668,45,88,32
123,77,0.36695755,34,78,22
124,77,0.35033932,87,124,75
125,77,0.32999364,47,86,33
126,77,0.3072557,96,133,86
127,77,0.23915082,125,151,109
51,78,0.24679054,82,107,96
52,78,0.30764377,80,127,114
53,78,0.3300447,58,119,101
54,78,0.35371727,37,105,84
55,78,0.37437057,53,122,96
56,78,0.39054865,49,113,87
57,78,0.40298647,38,106,76
58,78,0.4096319,28,100,71
59,78,0.41831073,71,150,124
60,78,0.4396505,89,182,160
61,78,0.4653376,86,195,176
62,78,0.49098018,98,223,204
63,78,0.5037574,22,162,144
64,78,0.512273,89,215,196
65,78,0.51870966,66,191,172
66,78,0.5290547,68,191,173
67,78,0.54290384,52,177,159
68,78,0.56078947,142,255,241
69,78,0.5777277,149,255,245
70,78,0.59352314,113,232,212
71,78,0.60981,53,177,155
72,78,0.62443,8,140,114
73,78,0.6286501,60,183,158
74,78,0.6299852,98,216,191
75,78,0.6320576,72,193,164
76,78,0.6349913,58,180,152
77,78,0.64153093,60,182,152
78,78,0.6535711,77,197,167
79,78,0.6682324,153,255,236
80,78,0.6702649,171,255,248
81,78,0.66092885,109,204,181
82,78,0.65530276,53,149,118
83,78,0.66061336,49,141,100
84,78,0.66743016,21,113,63
85,78,0.6641614,60,146,90
86,78,0.6586284,74,158,100
87,78,0.65393907,42,129,68
88,78,0.6532615,102,182,130
89,78,0.65105623,94,172,122
90,78,0.64971524,0,76,25
91,78,0.64683855,18,88,43
92,78,0.6409446,52,106,65
93,78,0.6369502,22,67,25
94,78,0.6330394,72,103,65
95,78,0.63188946,53,85,42
96,78,0.6401913,29,63,13
97,78,0.6497815,50,84,37
98,78,0.65649575,48,85,34
99,78,0.6603028,43,81,31
100,78,0.66157866,37,82,29
101,78,0.6593972,71,116,65
102,78,0.6553154,80,129,76
103,78,0.6502117,0,56,0
104,78,0.63705283,88,137,85
105,78,0.61857563,60,111,57
106,78,0.6057947,76,123,75
107,78,0.5932619,33,80,30
108,78,0.57977206,58,98,56
109,78,0.5680025,37,75,32
110,78,0.55488664,87,120,85
111,78,0.5392488,66,97,60
112,78,0.5279575,57,88,52
113,78,0.52005875,64,95,58
114,78,0.5082626,44,77,36
115,78,0.48983854,29,64,18
116,78,0.4660358,69,101,56
117,78,0.4441703,93,129,81
118,78,0.42525303,69,105,55
119,78,0.41512397,42,81,26
120,78,0.40723842,42,79,25
121,78,0.39643183,47,86,31
122,78,0.38264033,50,89,34
123,78,0.36683214,80,118,67
124,78,0.3504905,111,147,97
125,78,0.32835108,52,91,37
126,78,0.30940902,105,141,93
127,78,0.25652686,170,197,154
50,79,0.18892081,54,60,54
51,79,0.27597094,69,95,84
52,79,0.3071842,59,106,93
53,79,0.32698345,51,113,95
54,79,0.35208842,31,102,81
55,79,0.37395093,63,135,111
56,79,0.389488,52,121,95
57,79,0.39850497,84,150,125
58,79,0.40512264,47,121,97
59,79,0.4183454,44,130,107
60,79,0.44298455,125,216,196
61,79,0.46855986,72,182,162
62,79,0.49378407,25,157,138
63,79,0.5100737,65,194,175
64,79,0.517701,42,169,150
65,79,0.522843,43,167,149
66,79,0.53259903,87,206,189
67,79,0.5448798,10,140,121
68,79,0.55930775,99,216,199
69,79,0.57622105,74,194,175
70,79,0.5945053,76,198,177
71,79,0.61129117,58,181,159
72,79,0.6233502,66,189,163
73,79,0.6294737,25,155,128
74,79,0.6348075,67,191,163
75,79,0.6417291,50,175,144
76,79,0.64877176,58,183,154
77,79,0.6585586,60,186,156
78,79,0.6708767,26,156,125
79,79,0.6809534,140,255,227
80,79,0.67813766,65,177,151
81,79,0.67449325,31,142,113
82,79,0.67275935,51,150,118
83,79,0.6767903,8,110,69
84,79,0.6800648,42,132,84
85,79,0.67871904,16,105,51
86,79,0.67217636,28,114,55
87,79,0.6665571,74,154,97
88,79,0.66379565,79,157,101
89,79,0.6604935,45,123,70
90,79,0.6602931,43,115,67
91,79,0.6598536,68,132,87
92,79,0.65410507,77,128,88
93,79,0.6497233,64,105,67
94,79,0.648806,11,51,4
95,79,0.6459264,58,91,49
96,79,0.6500484,47,85,37
97,79,0.6596459,19,64,8
98,79,0.66749215,96,136,88
99,79,0.6694444,66,109,58
100,79,0.66843736,32,80,26
101,79,0.6638646,68,113,63
102,79,0.6582353,40,87,33
103,79,0.6519695,59,108,56
104,79,0.64204895,67,114,64
105,79,0.6285722,51,97,45
106,79,0.6167731,47,91,42
107,79,0.60573226,50,88,41
108,79,0.5933552,47,82,38
109,79,0.5817318,75,107,66
110,79,0.5675753,98,130,89
111,79,0.5490155,67,96,57
112,79,0.5358566,25,57,19
113,79,0.5258663,21,53,16
114,79,0.5122806,81,113,77
115,79,0.49132466,92,123,85
116,79,0.46469522,28,63,17
117,79,0.44139636,18,54,3
118,79,0.42190573,48,84,37
119,79,0.4134811,52,89,40
120,79,0.41111264,66,101,53
121,79,0.40374523,50,87,36
122,79,0.3883773,28,69,13
123,79,0.36944562,70,108,57
124,79,0.3531792,111,147,99
125,79,0.33148533,69,107,56
126,79,0.3154448,98,138,90
127,79,0.28627422,141,171,128
128,79,0.1889162,56,63,40
50,80,0.2225001,59,71,63
51,80,0.29409522,71,100,86
52,80,0.31088474,50,97,81
53,80,0.32594424,45,106,89
54,80,0.34784764,64,130,113
55,80,0.36995268,54,129,109
56,80,0.38607514,44,120,101
57,80,0.39355007,66,143,124
58,80,0.40093556,54,139,119
59,80,0.417663,44,136,117
60,80,0.44465864,85,180,160
61,80,0.47006422,85,191,169
62,80,0.49164128,53,171,148
63,80,0.50973535,85,203,179
64,80,0.51979864,7,129,108
65,80,0.5249031,22,137,120
66,80,0.5330316,112,217,202
67,80,0.5408963,55,169,149
68,80,0.5588771,40,155,135
69,80,0.5834219,0,122,98
70,80,0.6031392,103,216,194
71,80,0.61646867,49,171,146
72,80,0.62349886,44,169,142
73,80,0.62998533,56,181,152
74,80,0.6404919,124,246,216
75,80,0.6522595,100,226,195
76,80,0.66384333,84,211,179
77,80,0.67711645,136,255,226
78,80,0.6861621,38,174,139
79,80,0.69252044,25,158,124
80,80,0.69347906,38,160,127
81,80,0.6956194,114,219,190
82,80,0.6921181,17,124,90
83,80,0.6881768,48,141,105
84,80,0.6889654,43,128,85
85,80,0.68789077,29,108,60
86,80,0.6815666,59,128,80
87,80,0.678186,92,157,106
88,80,0.67656046,38,106,50
89,80,0.67470264,60,123,70
90,80,0.6746284,64,123,73
91,80,0.6735158,80,133,88
92,80,0.66667056,67,113,73
93,80,0.66241795,55,95,56
94,80,0.6633956,24,58,19
95,80,0.66086334,53,89,48
96,80,0.66117734,44,91,38
97,80,0.6663095,43,94,40
98,80,0.6706488,45,96,43
99,80,0.67231107,52,100,49
100,80,0.6716997,52,97,49
101,80,0.66825044,64,106,60
102,80,0.6642472,72,111,68
103,80,0.65868694,33,72,29
104,80,0.65094346,45,82,41
105,80,0.6414347,40,76,31
106,80,0.62949336,58,91,49
107,80,0.61646265,77,108,65
108,80,0.6015462,71,99,56
109,80,0.587791,84,113,68
110,80,0.5727327,34,67,17
111,80,0.55497766,36,69,22
112,80,0.5382812,51,81,45
113,80,0.5244126,44,75,40
114,80,0.50971204,64,93,58
115,80,0.48820737,37,69,31
116,80,0.4633514,38,72,33
117,80,0.44102484,30,65,22
118,80,0.42263398,36,70,28
119,80,0.4138193,47,79,36
120,80,0.4110166,44,80,36
121,80,0.4054776,31,69,23
122,80,0.3915907,58,94,51
123,80,0.3752499,85,119,77
124,80,0.35892272,111,146,102
125,80,0.33794925,75,112,67
126,80,0.32109585,78,115,71
127,80,0.2981954,111,140,96
128,80,0.2179578,72,81,52
50,81,0.22867912,64,78,68
51,81,0.29909402,74,107,90
52,81,0.31520125,69,115,96
53,81,0.32961172,63,121,105
54,81,0.34809646,64,130,113
55,81,0.3699222,74,147,130
56,81,0.38835707,7,93,77
57,81,0.39845163,95,175,159
58,81,0.4078178,113,196,182
59,81,0.42413712,110,198,182
60,81,0.4512213,166,255,237
61,81,0.47297376,135,236,213
62,81,0.48588568,41,155,129
63,81,0.5013073,60,172,150
64,81,0.5148559,34,144,124
65,81,0.5226198,90,191,176
66,81,0.5354983,152,250,235
67,81,0.5448715,65,171,151
68,81,0.5660509,10,125,105
69,81,0.58975416,25,140,119
70,81,0.6071498,87,197,175
71,81,0.61862385,98,211,188
72,81,0.62479675,77,197,169
73,81,0.63200384,103,222,194
74,81,0.6431367,78,201,172
75,81,0.65969145,136,255,226
76,81,0.6733442,120,245,212
77,81,0.6877231,84,211,177
78,81,0.70244336,6,148,112
79,81,0.7108487,0,138,100
80,81,0.7115293,32,155,120
81,81,0.7099485,32,147,112
82,81,0.7047072,91,191,155
83,81,0.6958749,55,147,111
84,81,0.6949494,38,118,77
85,81,0.6946734,50,120,76
86,81,0.69147795,79,142,97
87,81,0.6901048,67,127,76
88,81,0.6920666,72,129,74
89,81,0.6941044,47,101,48
90,81,0.6923482,58,113,59
91,81,0.6876276,86,135,86
92,81,0.68089575,47,92,45
93,81,0.6774229,50,90,48
94,81,0.6780247,43,78,41
95,81,0.67859006,25,66,18
96,81,0.680077,56,107,53
97,81,0.68231034,17,79,16
98,81,0.6826214,44,98,43
99,81,0.68214375,53,103,51
100,81,0.68110305,63,110,60
101,81,0.6773975,54,97,52
102,81,0.6743539,32,71,28
103,81,0.671178,28,63,23
104,81,0.6643216,48,78,42
105,81,0.6543711,43,72,36
106,81,0.64022785,37,65,24
107,81,0.6226105,36,64,21
108,81,0.6040283,43,71,25
109,81,0.5892123,45,73,25
110,81,0.5750359,60,91,43
111,81,0.55928683,67,96,50
112,81,0.5421442,47,75,40
113,81,0.5271481,48,78,43
114,81,0.51236415,72,101,68
115,81,0.49244565,42,73,37
116,81,0.4712392,33,66,29
117,81,0.45073906,24,58,19
118,81,0.4317705,42,75,37
119,81,0.41934025,66,97,60
120,81,0.41117555,50,82,45
121,81,0.4051266,45,81,40
122,81,0.39510983,32,70,26
123,81,0.38117924,16,54,8
124,81,0.3629962,91,125,86
125,81,0.342579,67,103,59
126,81,0.3238607,92,129,86
127,81,0.29860076,70,100,56
128,81,0.22421594,96,107,72
50,82,0.23342636,75,91,79
51,82,0.30290207,45,79,63
52,82,0.32142696,68,115,96
53,82,0.33926168,102,159,142
54,82,0.35409752,69,135,118
55,82,0.3730703,49,124,106
56,82,0.39331612,28,108,93
57,82,0.4070481,47,130,113
58,82,0.41682807,28,116,101
59,82,0.42720973,69,157,141
60,82,0.44635338,75,170,149
61,82,0.4652877,25,136,111
62,82,0.47754872,53,162,138
63,82,0.49538076,78,188,166
64,82,0.5128584,137,237,218
65,82,0.5227529,67,171,155
66,82,0.53832746,120,222,203
67,82,0.55384636,89,193,174
68,82,0.57528,1,119,98
69,82,0.5951823,21,137,114
70,82,0.6102591,92,202,179
71,82,0.6185596,79,193,170
72,82,0.6258666,88,203,176
73,82,0.6353356,99,217,190
74,82,0.64558643,63,186,154
75,82,0.66055596,99,219,189
76,82,0.67556006,93,215,183
77,82,0.69514,85,208,174
78,82,0.71556747,0,137,99
79,82,0.7239767,33,161,127
80,82,0.7223144,76,191,159
81,82,0.7164534,67,175,140
82,82,0.7113115,140,234,197
83,82,0.7012975,99,184,148
84,82,0.69879967,3,89,47
85,82,0.69984853,12,88,42
86,82,0.7004313,19,88,36
87,82,0.7031998,21,86,29
88,82,0.707888,38,98,40
89,82,0.7113152,84,140,85
90,82,0.70815927,87,143,88
91,82,0.6997812,65,117,64
92,82,0.6943383,26,77,23
93,82,0.69337064,31,77,26
94,82,0.6942828,43,81,36
95,82,0.6974951,58,99,52
96,82,0.70377254,84,136,80
97,82,0.70682716,36,96,34
98,82,0.70671886,74,127,73
99,82,0.70340544,58,109,56
100,82,0.6999628,75,119,72
101,82,0.6943603,68,107,64
102,82,0.6883495,40,77,34
103,82,0.68340445,66,97,57
104,82,0.67483836,42,73,36
105,82,0.6614608,51,79,44
106,82,0.64371073,43,70,30
107,82,0.6231568,34,63,19
108,82,0.6041534,49,75,33
109,82,0.5909931,22,51,1
110,82,0.57869214,65,91,48
111,82,0.56536007,51,77,36
112,82,0.5515056,37,63,29
113,82,0.53769845,21,51,17
114,82,0.5218007,36,66,32
115,82,0.5050163,13,45,10
116,82,0.48654637,26,56,23
117,82,0.46762946,23,55,18
118,82,0.4484679,24,56,19
119,82,0.43136445,29,60,24
120,82,0.41748267,48,78,43
121,82,0.4084244,63,94,57
122,82,0.396884,23,57,18
123,82,0.3807017,33,68,29
124,82,0.36134037,89,120,85
125,82,0.34094003,52,88,47
126,82,0.32090914,80,115,75
127,82,0.29766256,79,108,68
128,82,0.22889909,134,147,113
50,83,0.24062169,90,108,95
51,83,0.31170842,36,71,53
52,83,0.33102605,56,105,86
53,83,0.35005563,96,153,138
54,83,0.36615,47,114,97
55,83,0.385097,33,111,92
56,83,0.40591446,28,108,93
57,83,0.42259622,0,82,67
58,83,0.43157068,11,100,87
59,83,0.43760046,60,148,135
60,83,0.44925016,32,131,110
61,83,0.46432802,0,111,88
62,83,0.4774816,55,162,139
63,83,0.49423897,85,191,170
64,83,0.51215065,51,159,139
65,83,0.5278731,91,195,176
66,83,0.54233974,64,170,150
67,83,0.5593805,45,152,134
68,83,0.57985985,75,182,161
69,83,0.59971076,33,146,123
70,83,0.6165824,120,226,204
71,83,0.62189025,72,184,158
72,83,0.62638706,65,177,151
73,83,0.63632405,59,177,147
74,83,0.647594,80,195,166
75,83,0.6604218,77,194,161
76,83,0.67777026,70,188,155
77,83,0.70175695,78,199,164
78,83,0.7230454,12,141,108
79,83,0.7323434,63,180,147
80,83,0.72865385,49,162,129
81,83,0.7186698,64,171,133
82,83,0.7091387,41,139,101
83,83,0.7003902,65,151,111
84,83,0.6990607,58,136,94
85,83,0.70147324,43,112,66
86,83,0.70363516,63,124,73
87,83,0.7109649,78,139,84
88,83,0.7203182,48,111,50
89,83,0.7251401,70,132,69
90,83,0.7224469,44,103,40
91,83,0.71297014,31,92,26
92,83,0.7062019,37,92,33
93,83,0.7078707,26,78,22
94,83,0.7115405,32,78,25
95,83,0.7174686,63,108,55
96,83,0.7262916,55,109,52
97,83,0.7323346,37,95,31
98,83,0.733467,69,121,66
99,83,0.72842884,26,79,23
100,83,0.72089297,34,82,29
101,83,0.71209395,26,70,19
102,83,0.7023364,16,56,7
103,83,0.69195604,31,66,23
104,83,0.67839426,44,75,38
105,83,0.66117585,57,86,51
106,83,0.6402102,60,85,52
107,83,0.6185823,58,85,47
108,83,0.6014074,68,93,55
109,83,0.5901576,48,74,32
110,83,0.58130366,54,80,40
111,83,0.5726726,28,55,13
112,83,0.56153846,44,69,38
113,83,0.54909337,24,49,21
114,83,0.53316724,37,60,33
115,83,0.516742,22,52,18
116,83,0.50042576,48,71,44
117,83,0.4842602,43,72,40
118,83,0.46714452,30,59,26
119,83,0.44873297,18,51,12
120,83,0.43022656,29,58,25
121,83,0.41350165,73,102,69
122,83,0.39518654,41,72,36
123,83,0.37643325,84,115,79
124,83,0.3574438,82,112,78
125,83,0.3381013,78,110,74
126,83,0.31669044,60,92,56
127,83,0.29569688,93,121,84
128,83,0.23970485,99,113,82
50,84,0.24553259,87,103,92
51,84,0.32212016,66,98,81
52,84,0.34386173,64,110,91
53,84,0.36237273,53,113,96
54,84,0.38241854,13,85,68
55,84,0.40111464,64,136,118
56,84,0.41745657,56,131,117
57,84,0.43139,38,119,103
58,84,0.44101337,54,136,123
59,84,0.4471631,13,105,90
60,84,0.45472783,16,114,94
61,84,0.4674312,38,140,118
62,84,0.4842216,0,111,86
63,84,0.49833414,23,135,113
64,84,0.51634943,0,116,95
65,84,0.53561467,0,101,81
66,84,0.5487075,73,178,159
67,84,0.56346834,50,158,137
68,84,0.5837229,75,180,160
69,84,0.60295945,21,133,111
70,84,0.61890244,0,102,77
71,84,0.62497574,124,228,202
72,84,0.6275656,79,187,160
73,84,0.6381207,50,161,131
74,84,0.650376,80,189,159
75,84,0.66253805,67,178,147
76,84,0.6829571,41,156,123
77,84,0.7077395,7,129,93
78,84,0.7274601,52,166,134
79,84,0.7418221,87,197,163
80,84,0.74030167,30,142,107
81,84,0.7287752,70,172,133
82,84,0.7186214,37,133,95
83,84,0.71373266,29,115,72
84,84,0.7137203,90,162,121
85,84,0.71473,18,89,40
86,84,0.7144612,77,139,86
87,84,0.7223148,85,144,89
88,84,0.7355679,101,161,100
89,84,0.7425742,44,110,42
90,84,0.74063283,34,100,30
91,84,0.73053336,73,136,69
92,84,0.72169405,54,112,47
93,84,0.7234528,17,72,3
94,84,0.7279741,57,107,48
95,84,0.73644584,74,122,65
96,84,0.7462578,63,117,55
97,84,0.7539785,59,116,54
98,84,0.75546956,70,124,64
99,84,0.74809635,55,105,49
100,84,0.73662597,53,99,48
101,84,0.72334856,37,79,30
102,84,0.7095878,45,81,37
103,84,0.6951202,31,66,23
104,84,0.67714006,51,81,45
105,84,0.6572781,45,74,38
106,84,0.6353597,47,71,37
107,84,0.6140465,45,70,36
108,84,0.5992478,51,75,42
109,84,0.5916415,82,106,74
110,84,0.5839402,58,82,50
111,84,0.5768913,51,75,43
112,84,0.56745356,42,64,36
113,84,0.5555656,36,56,32
114,84,0.5400587,58,78,55
115,84,0.52344376,38,63,34
116,84,0.5093958,50,70,47
117,84,0.49689433,41,65,37
118,84,0.4822819,42,66,38
119,84,0.46347895,45,74,42
120,84,0.44133654,16,41,11
121,84,0.4174955,68,95,65
122,84,0.3945937,66,93,63
123,84,0.37402582,65,94,59
124,84,0.35680616,50,78,47
125,84,0.33973396,100,130,96
126,84,0.31766888,52,81,48
127,84,0.2999819,72,95,65
128,84,0.27162993,115,130,102
129,84,0.1831824,55,60,47
50,85,0.24663869,69,86,73
51,85,0.32978043,64,96,79
52,85,0.35718018,71,117,98
53,85,0.37631187,65,123,107
54,85,0.39467263,31,99,82
55,85,0.41164178,53,125,108
56,85,0.42439294,50,124,111
57,85,0.4352247,41,119,105
58,85,0.4454812,0,80,68
59,85,0.44990966,31,117,103
60,85,0.45550323,58,148,132
61,85,0.46938404,73,166,146
62,85,0.48843426,113,208,188
63,85,0.5000606,70,175,151
64,85,0.51441884,23,132,112
65,85,0.53360975,58,166,146
66,85,0.5493181,32,142,121
67,85,0.5643659,55,162,141
68,85,0.5853693,17,130,108
69,85,0.6025678,8,122,97
70,85,0.6139065,34,143,117
71,85,0.6217518,75,179,152
72,85,0.62814415,56,162,135
73,85,0.64234245,17,130,98
74,85,0.65576637,105,208,178
75,85,0.6660452,41,146,114
76,85,0.6864918,13,123,91
77,85,0.71011764,19,129,93
78,85,0.7288669,64,170,136
79,85,0.74594957,87,189,155
80,85,0.7501769,18,125,88
81,85,0.74310255,53,153,113
82,85,0.7374891,65,152,112
83,85,0.73518616,50,132,89
84,85,0.7344312,64,133,89
85,85,0.7338504,57,122,73
86,85,0.73167676,76,137,81
87,85,0.7379817,53,116,55
88,85,0.75031155,85,148,82
89,85,0.7590104,88,151,85
90,85,0.7583184,79,143,74
91,85,0.75050914,78,142,73
92,85,0.74156606,68,127,57
93,85,0.7398852,34,95,23
94,85,0.7431438,75,128,64
95,85,0.75075394,75,128,64
96,85,0.7590972,50,106,41
97,85,0.76689464,28,88,19
98,85,0.7680941,26,80,17
99,85,0.7605583,56,106,50
100,85,0.7474838,49,95,42
101,85,0.73129576,52,93,43
102,85,0.71657205,82,117,75
103,85,0.699843,78,108,70
104,85,0.6789694,44,73,37
105,85,0.6583277,32,63,25
106,85,0.6377977,30,55,22
107,85,0.6183289,23,49,13
108,85,0.60385996,25,51,17
109,85,0.5955436,84,107,76
110,85,0.5866756,53,77,45
111,85,0.5788723,57,78,50
112,85,0.56843215,34,53,29
113,85,0.5543044,22,40,17
114,85,0.53712815,38,55,33
115,85,0.52257943,16,37,11
116,85,0.5109112,32,50,28
117,85,0.50180566,30,51,26
118,85,0.48932594,36,56,32
119,85,0.4697405,41,65,37
120,85,0.44494763,25,50,22
121,85,0.4193095,40,64,36
122,85,0.39710498,78,100,75
123,85,0.3773411,34,65,31
124,85,0.36206913,21,51,17
125,85,0.34463185,50,78,47
126,85,0.32480082,38,68,34
127,85,0.31027007,76,99,71
128,85,0.29280272,117,134,108
129,85,0.21710847,58,68,54
50,86,0.247793,60,78,67
51,86,0.33268666,52,86,69
52,86,0.36247587,64,107,89
53,86,0.38263547,74,130,114
54,86,0.39873186,54,117,101
55,86,0.41491327,21,96,78
56,86,0.42644247,32,105,93
57,86,0.43393624,33,109,95
58,86,0.44277903,0,78,68
59,86,0.45011348,103,178,167
60,86,0.45761046,90,172,155
61,86,0.4695662,30,123,105
62,86,0.4854,91,186,164
63,86,0.4974221,0,102,80
64,86,0.5108311,54,159,140
65,86,0.52956367,76,178,160
66,86,0.54579395,0,111,91
67,86,0.56080145,44,150,131
68,86,0.5828114,66,171,147
69,86,0.600718,59,161,137
70,86,0.6133386,40,141,117
71,86,0.62484485,110,206,180
72,86,0.6330577,11,116,88
73,86,0.64528227,10,115,85
74,86,0.657005,128,220,192
75,86,0.6651726,54,152,120
76,86,0.68399155,51,149,117
77,86,0.70704657,75,171,137
78,86,0.72512335,52,148,114
79,86,0.7413922,42,140,102
80,86,0.75232935,65,162,123
81,86,0.7560723,64,157,117
82,86,0.757513,47,133,90
83,86,0.7577272,71,147,103
84,86,0.7569448,55,123,77
85,86,0.75552946,114,174,124
86,86,0.7516826,67,123,69
87,86,0.75628096,4,70,0
88,86,0.7635016,38,103,33
89,86,0.7687242,89,153,84
90,86,0.7677936,54,123,49
91,86,0.7650465,29,100,23
92,86,0.75903153,79,143,72
93,86,0.75385594,70,133,60
94,86,0.753816,71,129,57
95,86,0.757836,26,86,12
96,86,0.7633461,40,98,30
97,86,0.7698436,25,86,17
98,86,0.7724851,53,105,44
99,86,0.76827365,77,125,71
100,86,0.75638723,23,70,13
101,86,0.7379435,63,99,51
102,86,0.72263724,86,120,78
103,86,0.70644724,95,124,87
104,86,0.68593514,29,58,22
105,86,0.66499835,42,67,32
106,86,0.6452682,42,64,31
107,86,0.627056,28,50,19
108,86,0.6113472,29,51,21
109,86,0.5999135,54,75,49
110,86,0.5895929,47,68,41
111,86,0.5786953,32,53,29
112,86,0.563832,43,59,38
113,86,0.546058,25,41,23
114,86,0.5274047,38,53,36
115,86,0.5129067,21,38,16
116,86,0.5025814,42,56,40
117,86,0.49586934,40,56,34
118,86,0.48516545,36,53,31
119,86,0.46620336,31,52,28
120,86,0.44231606,33,54,30
121,86,0.41889364,22,43,18
122,86,0.39811856,68,87,65
123,86,0.38114193,47,70,43
124,86,0.3700452,16,41,11
125,86,0.35410443,8,34,4
126,86,0.33527136,37,60,33
127,86,0.32023552,81,103,78
128,86,0.30079812,76,95,74
129,86,0.22722924,68,76,67
50,87,0.260742,67,88,74
51,87,0.33219022,75,108,91
52,87,0.35798714,50,95,77
53,87,0.37638882,24,81,67
54,87,0.39236373,33,98,82
55,87,0.40865734,32,101,86
56,87,0.42146558,31,99,89
57,87,0.42778853,36,108,96
58,87,0.434036,50,121,113
59,87,0.4448579,37,116,105
60,87,0.4579759,37,121,105
61,87,0.47103015,43,130,112
62,87,0.48071328,28,124,105
63,87,0.49205205,47,144,123
64,87,0.50874096,0,103,85
65,87,0.52487934,7,116,96
66,87,0.53834075,64,163,144
67,87,0.55488956,63,162,140
68,87,0.5798583,21,125,100
69,87,0.600833,33,137,110
70,87,0.61525583,45,142,117
71,87,0.6258623,41,139,112
72,87,0.6330627,71,164,137
73,87,0.64249647,86,176,147
74,87,0.65306,80,171,141
75,87,0.6656015,69,159,127
76,87,0.6852434,77,167,135
77,87,0.7056414,47,135,100
78,87,0.72305465,66,151,117
79,87,0.73908746,49,138,101
80,87,0.7538275,33,129,89
81,87,0.7662599,67,154,114
82,87,0.77382183,71,151,109
83,87,0.77547306,77,148,106
84,87,0.7719038,75,139,93
85,87,0.76763934,73,133,82
86,87,0.765739,89,143,89
87,87,0.76979303,77,133,72
88,87,0.7741348,19,87,13
89,87,0.7740099,37,105,31
90,87,0.7712526,56,125,51
91,87,0.7711114,79,147,71
92,87,0.76856166,81,146,71
93,87,0.7631351,47,112,33
94,87,0.7595909,86,144,71
95,87,0.75850916,50,109,36
96,87,0.76200694,33,93,24
97,87,0.7691522,63,117,53
98,87,0.77544487,133,180,124
99,87,0.77242523,119,166,113
100,87,0.7596411,0,45,0
101,87,0.7399338,45,84,33
102,87,0.72341263,31,69,21
103,87,0.70837,30,64,18
104,87,0.69188404,24,55,12
105,87,0.6737134,56,80,48
106,87,0.6540848,54,75,47
107,87,0.6341989,30,52,22
108,87,0.61655885,34,56,29
109,87,0.60330963,22,43,18
110,87,0.5908822,55,75,52
111,87,0.5757642,29,47,24
112,87,0.55708915,31,47,29
113,87,0.5371778,36,51,33
114,87,0.5177412,69,82,67
115,87,0.5002016,48,63,45
116,87,0.4891926,44,58,42
117,87,0.48282677,26,42,24
118,87,0.4722877,24,42,19
119,87,0.45480734,32,50,28
120,87,0.4345325,24,42,19
121,87,0.41406646,32,53,29
122,87,0.39570004,41,60,37
123,87,0.38193363,53,73,50
124,87,0.37182713,12,34,8
125,87,0.35666138,47,70,43
126,87,0.34124798,58,81,55
127,87,0.3285753,42,66,41
128,87,0.31081474,60,82,67
129,87,0.23878096,95,105,97
49,88,0.19237056,43,49,41
50,88,0.28801823,60,82,69
51,88,0.32832628,71,102,86
52,88,0.34765062,69,113,95
53,88,0.36348173,53,108,93
54,88,0.38141015,64,123,109
55,88,0.39948738,45,111,96
56,88,0.4151231,51,116,106
57,88,0.4250511,47,113,102
58,88,0.43353277,72,137,130
59,88,0.44662535,86,154,146
60,88,0.4650017,75,150,138
61,88,0.48061132,125,203,189
62,88,0.4836828,31,123,105
63,88,0.49186695,10,110,90
64,88,0.50627226,0,85,63
65,88,0.5209508,89,186,164
66,88,0.53599006,103,197,177
67,88,0.550154,69,164,143
68,88,0.5741253,67,161,139
69,88,0.59885967,51,148,122
70,88,0.6164526,72,161,138
71,88,0.62694937,3,103,75
72,88,0.63372856,23,117,88
73,88,0.64125246,24,115,82
74,88,0.652949,41,129,94
75,88,0.6704231,30,117,82
76,88,0.68977726,84,163,131
77,88,0.7078113,51,134,97
78,88,0.72626066,50,131,95
79,88,0.7443195,31,116,77
80,88,0.76005644,43,132,91
81,88,0.77527726,28,116,73
82,88,0.7853065,34,116,73
83,88,0.78729504,97,164,122
84,88,0.78134847,88,148,103
85,88,0.77468604,56,111,63
86,88,0.77455574,73,125,73
87,88,0.7806832,19,76,16
88,88,0.7848267,11,76,3
89,88,0.7812661,30,96,25
90,88,0.77650905,64,132,57
91,88,0.7753371,76,143,71
92,88,0.7739325,89,153,78
93,88,0.76862013,79,142,68
94,88,0.7633737,43,105,24
95,88,0.76092577,37,97,23
96,88,0.7618095,43,99,32
97,88,0.7674238,16,75,7
98,88,0.7709943,105,154,99
99,88,0.7659835,116,160,108
100,88,0.7528103,30,76,22
101,88,0.73628354,65,101,53
102,88,0.7207519,58,92,47
103,88,0.7066998,60,92,50
104,88,0.6926818,40,70,29
105,88,0.67697376,32,57,23
106,88,0.65680933,30,52,22
107,88,0.6339316,37,58,29
108,88,0.61382025,43,60,34
109,88,0.5985773,38,56,32
110,88,0.5849954,31,52,29
111,88,0.56924367,32,50,31
112,88,0.55105716,51,66,49
113,88,0.5319274,65,76,64
114,88,0.5113073,56,69,55
115,88,0.4916133,40,52,38
116,88,0.47853273,36,51,33
117,88,0.46991754,33,49,31
118,88,0.45954406,30,45,28
119,88,0.4445463,32,50,28
120,88,0.42665192,16,33,10
121,88,0.40876994,22,40,17
122,88,0.39218137,41,57,36
123,88,0.37903577,47,67,43
124,88,0.3678483,49,69,45
125,88,0.3552904,59,79,56
126,88,0.34550756,54,74,51
127,88,0.33664215,60,82,60
128,88,0.32121024,70,91,77
129,88,0.2483522,101,113,107
49,89,0.22276141,45,52,44
50,89,0.30012262,68,89,75
51,89,0.32272738,51,80,67
52,89,0.33720824,57,100,84
53,89,0.35348096,36,89,74
54,89,0.37393978,71,129,115
55,89,0.39576656,68,130,115
56,89,0.4156788,63,123,114
57,89,0.428341,45,111,100
58,89,0.43821728,78,140,135
59,89,0.4525296,58,129,120
60,89,0.47353262,10,90,76
61,89,0.48878196,112,188,173
62,89,0.48930994,67,149,133
63,89,0.4942331,0,89,70
64,89,0.5032303,22,119,99
65,89,0.51771975,29,128,107
66,89,0.5361222,130,217,199
67,89,0.5476289,43,138,116
68,89,0.5689023,34,129,105
69,89,0.59410125,10,107,81
70,89,0.6111795,21,111,85
71,89,0.6233069,45,132,103
72,89,0.63493174,105,186,156
73,89,0.6405262,49,131,98
74,89,0.6541752,69,148,115
75,89,0.67537004,41,120,85
76,89,0.6957867,63,138,103
77,89,0.7148686,53,130,93
78,89,0.7348715,58,133,97
79,89,0.754237,51,128,88
80,89,0.7707735,43,128,85
81,89,0.78434485,28,114,70
82,89,0.7922483,55,131,88
83,89,0.7938793,68,133,90
84,89,0.78863615,78,133,90
85,89,0.7824431,52,105,56
86,89,0.782598,69,118,69
87,89,0.78901255,51,101,48
88,89,0.7942379,21,77,17
89,89,0.79053825,43,103,36
90,89,0.7849979,78,140,74
91,89,0.7815762,90,154,85
92,89,0.7786833,96,158,88
93,89,0.77307874,90,152,81
94,89,0.7680065,80,138,65
95,89,0.76592964,100,155,87
96,89,0.7612645,56,112,50
97,89,0.76092917,37,90,31
98,89,0.7620052,120,167,116
99,89,0.7559797,108,152,101
100,89,0.74415874,64,105,53
101,89,0.7313276,47,85,34
102,89,0.71659964,56,90,44
103,89,0.70242333,43,73,30
104,89,0.68837816,41,68,28
105,89,0.67203355,34,59,25
106,89,0.6504656,49,70,38
107,89,0.6269618,42,64,33
108,89,0.60667473,43,60,34
109,89,0.5918839,45,64,40
110,89,0.5804559,18,40,19
111,89,0.56682444,18,36,17
112,89,0.5500818,33,49,33
113,89,0.5321452,52,65,51
114,89,0.5117857,54,67,53
115,89,0.49098605,49,60,48
116,89,0.47481316,53,68,51
117,89,0.46348333,65,78,63
118,89,0.45425966,82,96,80
119,89,0.44145444,106,119,103
120,89,0.42153916,57,74,53
121,89,0.4045402,31,49,26
122,89,0.38977176,44,60,40
123,89,0.37726375,37,57,33
124,89,0.36646882,79,98,76
125,89,0.35490832,53,73,50
126,89,0.34753367,72,91,69
127,89,0.34040174,59,81,59
128,89,0.3257633,59,84,71
129,89,0.252665,108,120,116
49,90,0.22493613,47,53,45
50,90,0.2991817,68,86,73
51,90,0.31822577,30,63,47
52,90,0.33153814,49,92,75
53,90,0.34927672,24,78,64
54,90,0.37060082,59,118,105
55,90,0.39537343,53,114,100
56,90,0.41965094,87,143,138
57,90,0.43323737,31,95,86
58,90,0.4438589,65,125,119
59,90,0.45874524,85,146,140
60,90,0.47758856,66,135,123
61,90,0.49349287,129,197,184
62,90,0.4956998,102,178,163
63,90,0.49682766,78,160,143
64,90,0.50515366,91,177,160
65,90,0.51910037,0,94,75
66,90,0.5351494,107,192,173
67,90,0.54760855,25,118,97
68,90,0.56676215,10,102,79
69,90,0.5876168,49,134,111
70,90,0.60295826,68,150,125
71,90,0.61871034,93,172,146
72,90,0.63538855,168,241,212
73,90,0.64100224,70,146,114
74,90,0.656716,73,148,114
75,90,0.6830406,18,96,59
76,90,0.707153,16,91,51
77,90,0.727995,43,114,74
78,90,0.7489118,76,141,103
79,90,0.76807076,86,155,116
80,90,0.7829774,0,87,42
81,90,0.7921044,13,98,52
82,90,0.7983359,66,135,93
83,90,0.8016295,41,106,64
84,90,0.7979143,77,130,88
85,90,0.79213196,54,101,57
86,90,0.7931361,52,97,51
87,90,0.7991688,55,103,54
88,90,0.8040355,24,77,22
89,90,0.8006367,30,89,28
90,90,0.79268366,55,114,51
91,90,0.78573626,59,122,56
92,90,0.7805614,67,125,58
93,90,0.77523655,63,119,53
94,90,0.77104443,63,115,48
95,90,0.76777375,95,147,84
96,90,0.7604223,75,128,74
97,90,0.754472,49,99,47
98,90,0.751428,66,113,63
99,90,0.7469177,51,97,45
100,90,0.7405081,41,82,31
101,90,0.72936183,26,66,12
102,90,0.71300834,49,82,36
103,90,0.6970621,36,67,23
104,90,0.6795321,38,66,25
105,90,0.66071194,31,54,19
106,90,0.63937414,42,60,29
107,90,0.61891544,23,42,11
108,90,0.60192347,18,37,8
109,90,0.5897602,30,49,24
110,90,0.58126426,13,32,12
111,90,0.57042074,21,38,19
112,90,0.55612427,21,36,18
113,90,0.5389961,29,44,26
114,90,0.51895696,28,43,25
115,90,0.49665582,28,43,25
116,90,0.47638157,37,52,34
117,90,0.46146733,43,57,41
118,90,0.4506061,56,73,52
119,90,0.43784192,79,95,75
120,90,0.41919342,44,60,40
121,90,0.40370065,33,51,29
122,90,0.3899049,41,60,37
123,90,0.376193,48,68,44
124,90,0.36437875,77,96,74
125,90,0.35298482,28,52,24
126,90,0.34424317,74,96,71
127,90,0.3373676,74,96,74
128,90,0.32373375,51,75,63
129,90,0.25211993,109,122,118
49,91,0.22319797,50,56,48
50,91,0.29465112,63,80,68
51,91,0.31318006,43,74,58
52,91,0.32813537,64,106,89
53,91,0.34732392,55,107,92
54,91,0.3694981,59,116,102
55,91,0.39433217,40,101,88
56,91,0.41784483,25,88,79
57,91,0.43293074,53,113,105
58,91,0.44721895,79,138,133
59,91,0.46267638,51,113,107
60,91,0.4781395,40,107,96
61,91,0.49034905,63,132,120
62,91,0.49518654,29,106,92
63,91,0.49698877,43,123,108
64,91,0.50743324,38,123,107
65,91,0.5234167,41,128,108
66,91,0.5361831,65,148,129
67,91,0.5494352,33,120,98
68,91,0.566721,52,133,111
69,91,0.5870859,95,173,150
70,91,0.6010985,67,144,119
71,91,0.61203045,47,123,95
72,91,0.625355,78,152,122
73,91,0.63760084,30,107,73
74,91,0.6567088,53,124,89
75,91,0.6856323,31,102,65
76,91,0.71367466,42,110,71
77,91,0.7385189,64,129,88
78,91,0.7599673,88,152,112
79,91,0.77572185,86,151,111
80,91,0.7860334,0,85,38
81,91,0.7920096,42,120,76
82,91,0.7975045,58,127,82
83,91,0.80312365,42,101,60
84,91,0.8028005,80,128,89
85,91,0.7999675,56,100,60
86,91,0.80458856,32,77,32
87,91,0.81020325,38,82,36
88,91,0.81209266,49,94,45
89,91,0.80932015,30,82,28
90,91,0.8015086,33,89,32
91,91,0.7927477,41,98,38
92,91,0.7858723,51,105,48
93,91,0.78020865,47,98,37
94,91,0.77421844,33,85,23
95,91,0.7665396,60,110,54
96,91,0.76122195,84,133,84
97,91,0.75688076,77,125,79
98,91,0.7530398,29,79,30
99,91,0.74845266,43,88,38
100,91,0.7422695,26,70,19
101,91,0.72797173,42,78,31
102,91,0.7091213,67,99,54
103,91,0.69085467,86,114,72
104,91,0.6684912,48,74,32
105,91,0.64834017,47,69,31
106,91,0.6303942,38,57,24
107,91,0.6152043,41,59,28
108,91,0.602568,32,51,24
109,91,0.5924754,19,38,12
110,91,0.5836907,24,42,19
111,91,0.5733925,26,44,25
112,91,0.56053466,31,47,29
113,91,0.5452514,29,44,26
114,91,0.52713186,21,36,18
115,91,0.50507313,25,41,23
116,91,0.4832916,36,51,33
117,91,0.466279,28,45,23
118,91,0.45193946,18,36,12
119,91,0.43574262,24,42,19
120,91,0.41835395,21,38,16
121,91,0.40382797,44,65,41
122,91,0.39122885,29,50,25
123,91,0.37654635,59,82,56
124,91,0.3615704,50,73,47
125,91,0.3485813,24,49,21
126,91,0.33675236,64,86,59
127,91,0.32941273,71,92,71
128,91,0.31820032,54,78,66
129,91,0.24899699,107,120,116
49,92,0.21984525,49,55,48
50,92,0.28912213,59,78,66
51,92,0.30813324,68,96,81
52,92,0.32497504,67,109,92
53,92,0.34628463,86,136,121
54,92,0.36730602,66,121,108
55,92,0.39007747,58,117,105
56,92,0.41311562,34,94,87
57,92,0.43013638,24,85,77
58,92,0.44634393,32,92,88
59,92,0.4626899,23,86,80
60,92,0.47608292,58,123,113
61,92,0.48588997,64,129,118
62,92,0.4918977,28,103,90
63,92,0.4972601,38,114,100
64,92,0.51330423,75,153,136
65,92,0.5343183,157,230,214
66,92,0.5449892,85,161,144
67,92,0.55712414,7,94,73
68,92,0.5704178,51,127,107
69,92,0.58857304,56,133,110
70,92,0.6039389,17,95,71
71,92,0.6114629,43,117,88
72,92,0.6202367,50,120,90
73,92,0.63396746,72,140,108
74,92,0.6544094,59,127,89
75,92,0.6831006,45,111,73
76,92,0.7135747,49,115,74
77,92,0.74179965,30,96,53
78,92,0.7615073,42,107,65
